# .PCD v0.7 - Point Cloud Data file format
VERSION 0.7
FIELDS x y z
SIZE 4 4 4
TYPE F F F
COUNT 1 1 1
WIDTH 1256
HEIGHT 1
VIEWPOINT 0 0 0 1 0 0 0
POINTS 1256
DATA ascii
1.84567057 -0.4941370031 0.5910404133
1.814829214 -0.4858799202 0.6857956149
1.779451731 -0.4764083905 0.7788366846
1.739626546 -0.465746088 0.8699310682
1.695453199 -0.4539196629 0.9588510772
1.647042103 -0.4409586749 1.045374458
1.59451426 -0.42689552 1.129284947
1.538000961 -0.4117653485 1.210372811
1.47764346 -0.3956059781 1.288435374
1.413592621 -0.3784577988 1.36327752
1.346008536 -0.3603636722 1.434712182
1.275060131 -0.341368824 1.50256081
1.200924739 -0.3215207315 1.566653819
1.123787662 -0.3008690046 1.62683101
1.0438417 -0.2794652619 1.68294197
0.9612866774 -0.2573630016 1.734846451
0.876328939 -0.2346174679 1.78241472
0.7891808345 -0.2112855126 1.825527881
0.700060189 -0.1874254536 1.864078172
0.6091897576 -0.1630969286 1.897969239
0.5167966691 -0.1383607462 1.927116371
0.423111858 -0.113278734 1.951446716
0.3283694877 -0.08791358392 1.97089946
0.2328063646 -0.06232869569 1.985425982
0.1366613469 -0.03658801818 1.994989973
0.04017474693 -0.01075588969 1.999567528
1.967114626 -0.3611925358 1.224646799e-16
1.964656245 -0.3607411392 0.09995833854
1.957287247 -0.3593880776 0.1996668333
1.945026049 -0.357136733 0.2988762649
1.9279033 -0.3539927325 0.3973386616
1.905961796 -0.3499639346 0.4948079185
1.879256381 -0.345060409 0.5910404133
1.847853803 -0.3392944122 0.6857956149
1.811832553 -0.332680356 0.7788366846
1.771282665 -0.3252347722 0.8699310682
1.726305493 -0.3169762709 0.9588510772
1.677013456 -0.3079254939 1.045374458
1.62352976 -0.2981050636 1.129284947
1.565988084 -0.2875395259 1.210372811
1.504532253 -0.2762552891 1.288435374
1.439315876 -0.264280558 1.36327752
1.370501958 -0.251645263 1.434712182
1.298262499 -0.238380986 1.50256081
1.22277806 -0.2245208807 1.566653819
1.144237313 -0.2100995901 1.62683101
1.062836568 -0.1951531599 1.68294197
0.9787792858 -0.1797189485 1.734846451
0.8922755648 -0.1638355333 1.78241472
0.8035416195 -0.1475426146 1.825527881
0.7127992387 -0.1308809162 1.864078172
0.620275231 -0.1138920837 1.897969239
0.5262008582 -0.09661858023 1.927116371
0.4308112574 -0.07910358067 1.951446716
0.3343448528 -0.06139086334 1.97089946
0.2370427601 -0.04352470084 1.985425982
0.139148184 -0.02554974924 1.994989973
0.04090580992 -0.007510936585 1.999567528
1.989687807 -0.2028359726 1.224646799e-16
1.987201215 -0.2025824805 0.09995833854
1.979747655 -0.2018226376 0.1996668333
1.967345757 -0.2005583433 0.2988762649
1.95002652 -0.1987927576 0.3973386616
1.927833231 -0.1965302935 0.4948079185
1.900821364 -0.193776606 0.5910404133
1.869058433 -0.1905385779 0.6857956149
1.832623829 -0.1868243026 0.7788366846
1.79160862 -0.1826430638 0.8699310682
1.746115323 -0.1780053125 0.9588510772
1.696257646 -0.1729226406 1.045374458
1.642160209 -0.1674077522 1.129284947
1.583958227 -0.1614744316 1.210372811
1.521797174 -0.155137509 1.288435374
1.455832421 -0.1484128234 1.36327752
1.386228844 -0.141317183 1.434712182
1.313160418 -0.1338683233 1.50256081
1.236809774 -0.1260848625 1.566653819
1.15736775 -0.1179862552 1.62683101
1.07503291 -0.1095927437 1.68294197
0.990011047 -0.1009253075 1.734846451
0.902514672 -0.09200561047 1.78241472
0.8127624803 -0.08285594738 1.825527881
0.7209788058 -0.07349918757 1.864078172
0.6273930596 -0.06395871807 1.897969239
0.5322391576 -0.05425838508 1.927116371
0.4357549349 -0.04442243439 1.951446716
0.3381815518 -0.03447545075 1.97089946
0.2397628909 -0.02444229643 1.985425982
0.1407449476 -0.0143480491 1.994989973
0.04137521532 -0.004217939123 1.999567528
1.999533775 -0.04318195145 1.224646799e-16
1.997034879 -0.04312798526 0.09995833854
1.989544435 -0.04296622156 0.1996668333
1.977081166 -0.04269706468 0.2988762649
1.959676225 -0.04232118738 0.3973386616
1.937373113 -0.04183952916 0.4948079185
1.910227577 -0.04125329389 0.5910404133
1.878307467 -0.04056394688 0.6857956149
1.841692567 -0.03977321113 0.7788366846
1.800474394 -0.03888306306 0.8699310682
1.754755973 -0.03789572758 0.9588510772
1.704651576 -0.03681367252 1.045374458
1.650286438 -0.03563960245 1.129284947
1.591796443 -0.03437645194 1.210372811
1.529327786 -0.0330273782 1.288435374
1.463036606 -0.03159575321 1.36327752
1.393088597 -0.0300851553 1.434712182
1.319658591 -0.02849936016 1.50256081
1.242930127 -0.02684233147 1.566653819
1.163094984 -0.02511821093 1.62683101
1.08035271 -0.02333130794 1.68294197
0.9949101159 -0.02148608883 1.734846451
0.9069807652 -0.01958716569 1.78241472
0.8167844349 -0.01763928484 1.825527881
0.7245465689 -0.01564731496 1.864078172
0.6304977138 -0.01361623494 1.897969239
0.5348729427 -0.01155112143 1.927116371
0.4379112679 -0.00945713613 1.951446716
0.3398550429 -0.007339512913 1.97089946
0.2409493574 -0.005203544737 1.985425982
0.1414414239 -0.003054570408 1.994989973
0.04157996055 -0.0008979612446 1.999567528
1.996589552 0.1167482869 1.224646799e-16
1.994094335 0.1166023819 0.09995833854
1.98661492 0.1161650317 0.1996668333
1.974170003 0.1154373294 0.2988762649
1.956790689 0.114421094 0.3973386616
1.934520418 0.1131188653 0.4948079185
1.907414852 0.1115338985 0.5910404133
1.875541744 0.1096701549 0.6857956149
1.838980757 0.1075322931 0.7788366846
1.797823276 0.1051256566 0.8699310682
1.752172174 0.1024562607 0.9588510772
1.702141553 0.09953077745 1.045374458
1.647856465 0.09635651912 1.129284947
1.589452594 0.09294141967 1.210372811
1.52707592 0.08929401508 1.288435374
1.460882351 0.08542342195 1.36327752
1.391037336 0.08133931476 1.434712182
1.317715453 0.07705190164 1.50256081
1.241099968 0.07257189889 1.566653819
1.161382379 0.06791050419 1.62683101
1.078761939 0.06307936859 1.68294197
0.9934451554 0.05809056743 1.734846451
0.9056452767 0.0529565701 1.78241472
0.8155817564 0.04769020893 1.825527881
0.7234797065 0.04230464706 1.864078172
0.6295693341 0.03681334562 1.897969239
0.5340853663 0.03123002998 1.927116371
0.4372664632 0.02556865553 1.951446716
0.3393546216 0.01984337276 1.97089946
0.2405945703 0.01406849188 1.985425982
0.1412331578 0.008258447112 1.994989973
0.04151873592 0.002427760521 1.999567528
1.980873968 0.2759317345 1.224646799e-16
1.978398392 0.2755868917 0.09995833854
1.970977849 0.2745532252 0.1996668333
1.958630889 0.2728333186 0.2988762649
1.941388371 0.2704314708 0.3973386616
1.919293394 0.2673536851 0.4948079185
1.892401182 0.2636076545 0.5910404133
1.860778953 0.259202742 0.6857956149
1.824505746 0.2541499577 0.7788366846
1.783672225 0.2484619308 0.8699310682
1.738380452 0.2421528785 0.9588510772
1.688743633 0.2352385701 1.045374458
1.634885835 0.2277362878 1.129284947
1.576941673 0.2196647834 1.210372811
1.515055979 0.2110442314 1.288435374
1.449383433 0.2018961787 1.36327752
1.380088184 0.1922434908 1.434712182
1.307343433 0.1821102942 1.50256081
1.231331005 0.1715219168 1.566653819
1.15224089 0.1605048238 1.62683101
1.070270773 0.1490865524 1.68294197
0.9856255361 0.1372956423 1.734846451
0.898516749 0.1251615646 1.78241472
0.809162138 0.1127146481 1.825527881
0.717785043 0.09998600372 1.864078172
0.6246138593 0.0870074464 1.897969239
0.5298814661 0.07381141577 1.927116371
0.4338246453 0.06043089505 1.951446716
0.3366834888 0.04689932856 1.97089946
0.2387007989 0.03325053817 1.985425982
0.1401214814 0.01951863875 1.994989973
0.04119193307 0.005737952905 1.999567528
1.952487551 0.4333501608 1.224646799e-16
1.95004745 0.4328085859 0.09995833854
1.942733246 0.431185215 0.1996668333
1.930563221 0.4284841056 0.2988762649
1.913567793 0.4247120091 0.3973386616
1.891789442 0.4198783537 0.4948079185
1.865282602 0.4139952212 0.5910404133
1.834113528 0.4070773161 0.6857956149
1.798360125 0.3991419298 0.7788366846
1.758111758 0.3902088966 0.8699310682
1.713469027 0.3803005443 0.9588510772
1.664543517 0.3694416387 1.045374458
1.611457514 0.3576593214 1.129284947
1.554343706 0.3449830421 1.210372811
1.493344849 0.3314444848 1.288435374
1.428613408 0.317077489 1.36327752
1.360311177 0.3019179645 1.434712182
1.288608876 0.2860038024 1.50256081
1.213685725 0.2693747797 1.566653819
1.135728991 0.2520724603 1.62683101
1.054933526 0.2341400911 1.68294197
0.9715012769 0.2156224936 1.734846451
0.8856407804 0.1965659521 1.78241472
0.7975666432 0.1770180982 1.825527881
0.7074990047 0.1570277912 1.864078172
0.6156629872 0.1366449964 1.897969239
0.5222881329 0.1159206604 1.927116371
0.4276078302 0.09490658306 1.951446716
0.3318587307 0.0736552887 1.97089946
0.2352801571 0.05221989448 1.985425982
0.1381135057 0.03065397772 1.994989973
0.04060164242 0.009011441972 1.999567528
1.911611877 0.5879966248 1.224646799e-16
1.90922286 0.5872617822 0.09995833854
1.90206178 0.5850590909 0.1996668333
1.890146536 0.5813940566 0.2988762649
1.873506911 0.5762758399 0.3973386616
1.852184493 0.5697172337 0.4948079185
1.826232579 0.5617346312 0.5910404133
1.795716035 0.5523479846 0.6857956149
1.760711136 0.5415807557 0.7788366846
1.721305376 0.529459857 0.8699310682
1.677597249 0.5160155844 0.9588510772
1.629696002 0.5012815416 1.045374458
1.577721364 0.4852945559 1.129284947
1.521803245 0.4680945866 1.210372811
1.462081409 0.4497246247 1.288435374
1.398705132 0.4302305853 1.36327752
1.331832821 0.4096611936 1.434712182
1.26163162 0.3880678622 1.50256081
1.188276998 0.3655045633 1.566653819
1.111952303 0.3420276933 1.62683101
1.032848305 0.3176959322 1.68294197
0.9511627249 0.2925700968 1.734846451
0.8670997332 0.2667129884 1.78241472
0.7808694437 0.2401892365 1.825527881
0.6926873873 0.2130651366 1.864078172
0.6027739731 0.1854084848 1.897969239
0.5113539379 0.1572884084 1.927116371
0.4186557842 0.1287751928 1.951446716
0.3249112091 0.09994010636 1.97089946
0.2303545252 0.07085522167 1.985425982
0.1352220749 0.04159323583 1.994989973
0.03975163981 0.01222728856 1.999567528
1.858508411 0.7388819171 1.224646799e-16
1.856185759 0.7379585071 0.09995833854
1.84922361 0.7351905852 0.1996668333
1.837639365 0.7305850696 0.2988762649
1.821461978 0.7241534719 0.3973386616
1.800731885 0.7159118676 0.4948079185
1.7755009 0.7058808566 0.5910404133
1.745832088 0.6940855109 0.6857956149
1.711799604 0.680555313 0.7788366846
1.673488513 0.6653240812 0.8699310682
1.630994572 0.6484298857 0.9588510772
1.584423995 0.6299149532 1.045374458
1.533893182 0.6098255614 1.129284947
1.479528435 0.5882119232 1.210372811
1.421465638 0.5651280616 1.288435374
1.359849917 0.5406316741 1.36327752
1.294835279 0.5147839891 1.434712182
1.226584228 0.4876496121 1.50256081
1.155267354 0.459296365 1.566653819
1.081062914 0.4297951163 1.62683101
1.00415638 0.3992196036 1.68294197
0.9247399774 0.3676462498 1.734846451
0.8430122067 0.3351539718 1.78241472
0.7591773445 0.3018239834 1.825527881
0.6734449344 0.2677395923 1.864078172
0.5860292626 0.2329859916 1.897969239
0.4971488228 0.1976500473 1.927116371
0.40702577 0.1618200808 1.951446716
0.3158853646 0.1255856484 1.97089946
0.2239554104 0.08903731724 1.985425982
0.1314656842 0.05226643918 1.994989973
0.03864736237 0.01536492223 1.999567528
1.793516833 0.8850408866 1.224646799e-16
1.791275404 0.8839348159 0.09995833854
1.784556719 0.8806193686 0.1996668333
1.773377572 0.8751028315 0.2988762649
1.757765904 0.867398993 0.3973386616
1.737760738 0.8575271087 0.4948079185
1.713412074 0.8455118533 0.5910404133
1.684780773 0.8313832586 0.6857956149
1.651938397 0.8151766387 0.7788366846
1.614967035 0.7969325018 0.8699310682
1.573959097 0.7766964486 0.9588510772
1.529017081 0.7545190588 1.045374458
1.480253318 0.7304557644 1.129284947
1.427789693 0.7045667109 1.210372811
1.371757337 0.6769166075 1.288435374
1.312296303 0.6475745652 1.36327752
1.249555211 0.6166139237 1.434712182
1.183690881 0.5841120686 1.50256081
1.114867941 0.5501502374 1.566653819
1.043258412 0.5148133172 1.62683101
0.9690412803 0.4781896318 1.68294197
0.8924020498 0.4403707214 1.734846451
0.813532279 0.4014511135 1.78241472
0.7326291012 0.3615280868 1.825527881
0.6498947321 0.3207014283 1.864078172
0.5655359647 0.2790731832 1.897969239
0.4797636519 0.2367474004 1.927116371
0.3927921798 0.1938298725 1.951446716
0.3048389318 0.1504278708 1.97089946
0.2161237452 0.1066498778 1.985425982
0.1268683619 0.06260531568 1.994989973
0.0372958737 0.01840427284 1.999567528
1.717052867 1.025538615 1.224646799e-16
1.714906999 1.024256958 0.09995833854
1.708474755 1.020415193 0.1996668333
1.697772215 1.014022922 0.2988762649
1.682826128 1.005096121 0.3973386616
1.663673852 0.9936571027 0.4948079185
1.640363258 0.9797344596 0.5910404133
1.61295261 0.9633629906 0.6857956149
1.581510421 0.9445836159 0.7788366846
1.546115279 0.923443274 0.8699310682
1.506855654 0.8999948048 0.9588510772
1.463829675 0.8742968174 1.045374458
1.417144884 0.8464135432 1.129284947
1.366917969 0.816414676 1.210372811
1.313274471 0.7843751972 1.288435374
1.25634847 0.750375189 1.36327752
1.196282253 0.7144996336 1.434712182
1.133225953 0.6768382012 1.50256081
1.067337178 0.6374850258 1.566653819
0.9987806167 0.5965384698 1.62683101
0.9277276236 0.5541008783 1.68294197
0.8543557946 0.5102783232 1.734846451
0.778848521 0.465180338 1.78241472
0.7013945317 0.4189196443 1.825527881
0.6221874214 0.3716118696 1.864078172
0.5414251665 0.3233752587 1.897969239
0.4593096307 0.2743303781 1.927116371
0.3760460601 0.2245998145 1.951446716
0.2918425701 0.1743078683 1.97089946
0.2069096257 0.1235802432 1.985425982
0.121459515 0.07254373181 1.994989973
0.03570581871 0.0213258989 1.999567528
1.629605624 1.159476395 1.224646799e-16
1.627569041 1.158027352 0.09995833854
1.621464383 1.153683843 0.1996668333
1.611306909 1.146456725 0.2988762649
1.597122007 1.136364063 0.3973386616
1.578945131 1.123431082 0.4948079185
1.556821715 1.107690109 0.5910404133
1.530807055 1.089180487 0.6857956149
1.500966175 1.067948481 0.7788366846
1.467373662 1.044047161 0.8699310682
1.430113478 1.017536266 0.9588510772
1.389278755 0.9884820599 1.045374458
1.344971559 0.9569571638 1.129284947
1.297302635 0.9230403732 1.210372811
1.24639113 0.8868164624 1.288435374
1.192364295 0.8483759723 1.36327752
1.135357172 0.807814984 1.434712182
1.075512246 0.7652348791 1.50256081
1.0129791 0.7207420854 1.566653819
0.9479140337 0.6744478119 1.62683101
0.8804796761 0.6264677701 1.68294197
0.8108445778 0.5769218851 1.734846451
0.7391827903 0.5259339959 1.78241472
0.6656734308 0.4736315455 1.825527881
0.5905002344 0.420145263 1.864078172
0.513851095 0.3656088362 1.897969239
0.4359175954 0.3101585776 1.927116371
0.3568945289 0.2539330841 1.951446716
0.2769794119 0.1970728902 1.97089946
0.1963719906 0.1397201167 1.985425982
0.1152737416 0.08201811561 1.994989973
0.03388736833 0.02411111199 1.999567528
1.531734465 1.285997484 1.224646799e-16
1.529820196 1.284390322 0.09995833854
1.524082173 1.279572853 0.1996668333
1.514534738 1.271557119 0.2988762649
1.501201755 1.260363153 0.3973386616
1.48411655 1.246018937 0.4948079185
1.463321826 1.228560321 0.5910404133
1.43886956 1.208030945 0.6857956149
1.410820869 1.184482121 0.7788366846
1.37924586 1.157972708 0.8699310682
1.344223456 1.128568967 0.9588510772
1.305841193 1.096344391 1.045374458
1.264195006 1.061379524 1.129284947
1.219388991 1.023761762 1.210372811
1.171535138 0.9835851286 1.288435374
1.120753058 0.9409500445 1.36327752
1.067169679 0.8959630754 1.434712182
1.010918931 0.8487366652 1.50256081
0.9521414121 0.7993888553 1.566653819
0.8909840358 0.7480429896 1.62683101
0.8275996633 0.694827406 1.68294197
0.7621467228 0.6398751158 1.734846451
0.6947888123 0.583323471 1.78241472
0.6256942917 0.5253138213 1.825527881
0.5550358611 0.4659911606 1.864078172
0.48299013 0.4055037647 1.897969239
0.4097371751 0.3440028206 1.927116371
0.3354600907 0.2816420486 1.951446716
0.2603445307 0.2185773182 1.97089946
0.184578245 0.1549662582 1.985425982
0.1083506097 0.09096786338 1.994989973
0.03185215444 0.02674209624 1.999567528
1.424065433 1.404292577 1.224646799e-16
1.422285722 1.402537577 0.09995833854
1.416951037 1.397276964 0.1996668333
1.408074713 1.388523886 0.2988762649
1.395678935 1.376300221 0.3973386616
1.379794687 1.360636522 0.4948079185
1.360461671 1.341571941 0.5910404133
1.337728209 1.319154128 0.6857956149
1.311651123 1.293439117 0.7788366846
1.282295593 1.264491182 0.8699310682
1.249734991 1.232382678 0.9588510772
1.214050702 1.197193858 1.045374458
1.17533192 1.159012678 1.129284947
1.133675419 1.117934569 1.210372811
1.08918532 1.074062207 1.288435374
1.041972826 1.027505248 1.36327752
0.9921559416 0.9783800606 1.434712182
0.9398591843 0.926809433 1.50256081
0.8852132685 0.8729222645 1.566653819
0.8283547805 0.816853245 1.62683101
0.769425837 0.7587425177 1.68294197
0.7085737297 0.6987353293 1.734846451
0.645950557 0.6369816665 1.78241472
0.5817128443 0.5736358812 1.825527881
0.5160211525 0.508856305 1.864078172
0.4490396765 0.442804853 1.897969239
0.3809358352 0.3756466195 1.927116371
0.3118798526 0.3075494651 1.951446716
0.2420443329 0.2386835972 1.97089946
0.1716038284 0.1692211446 1.985425982
0.1007344037 0.09933572725 1.994989973
0.02961319546 0.02920202233 1.999567528
1.307287242 1.513604991 1.224646799e-16
1.305653473 1.511713379 0.09995833854
1.300756251 1.50604327 0.1996668333
1.292607815 1.496608838 0.2988762649
1.281228533 1.483433663 0.3973386616
1.266646847 1.466550677 0.4948079185
1.248899204 1.446002078 0.5910404133
1.228029963 1.421839226 0.6857956149
1.204091286 1.394122517 0.7788366846
1.177143009 1.362921228 0.8699310682
1.147252487 1.328313345 0.9588510772
1.114494431 1.290385371 1.045374458
1.07895072 1.249232106 1.129284947
1.040710193 1.20495641 1.210372811
0.9998684334 1.157668952 1.288435374
0.9565275232 1.107487924 1.36327752
0.9107957924 1.054538752 1.434712182
0.8627875464 0.9989537833 1.50256081
0.8126227809 0.9408719502 1.566653819
0.7604268816 0.8804384272 1.62683101
0.7063303111 0.8178042666 1.68294197
0.6504682828 0.7531260213 1.734846451
0.5929804224 0.6865653531 1.78241472
0.5340104199 0.6182886291 1.825527881
0.4737056694 0.5484665056 1.864078172
0.4122169014 0.4772735014 1.897969239
0.3496978058 0.404887562 1.927116371
0.2863046479 0.3314896146 1.951446716
0.2221958774 0.2572631157 1.97089946
0.157531733 0.1823935931 1.985425982
0.09247384126 0.1070681815 1.994989973
0.02718481308 0.03147515514 1.999567528
1.182146874 1.613235497 1.224646799e-16
1.180669498 1.611219373 0.09995833854
1.176241063 1.605176039 0.1996668333
1.168872638 1.595120601 0.2988762649
1.158582641 1.581078193 0.3973386616
1.14539679 1.563083912 0.4948079185
1.129348044 1.541182736 0.5910404133
1.110476516 1.515429405 0.6857956149
1.088829374 1.485888291 0.7788366846
1.064460727 1.452633229 0.8699310682
1.037431482 1.415747341 0.9588510772
1.007809198 1.375322821 1.045374458
0.9756679168 1.331460711 1.129284947
0.9410879736 1.284270643 1.210372811
0.9041558005 1.233870566 1.288435374
0.8649637088 1.180386456 1.36327752
0.8236096582 1.123951995 1.434712182
0.7801970125 1.064708238 1.50256081
0.7348342806 1.002803266 1.566653819
0.6876348456 0.938391808 1.62683101
0.6387166817 0.871634859 1.68294197
0.5882020586 0.8026992768 1.734846451
0.5362172368 0.7317573645 1.78241472
0.4828921511 0.6589864398 1.825527881
0.4283600866 0.5845683922 1.864078172
0.3727573449 0.5086892281 1.897969239
0.3162229039 0.4315386058 1.927116371
0.2588980704 0.3533093617 1.951446716
0.2009261266 0.2741970283 1.97089946
0.1424519721 0.1943993451 1.985425982
0.0836217618 0.1141157647 1.994989973
0.02458254067 0.03354695437 1.999567528
1.0494448 1.702546802 1.224646799e-16
1.048133267 1.700419062 0.09995833854
1.044201947 1.694041159 0.1996668333
1.037660666 1.683429037 0.2988762649
1.028525773 1.668609218 0.3973386616
1.016820102 1.649618745 0.4948079185
1.00257291 1.626505084 0.5910404133
0.9858198084 1.599326008 0.6857956149
0.9666026703 1.56814945 0.7788366846
0.9449695289 1.533053334 0.8699310682
0.9209744558 1.494125384 0.9588510772
0.8946774262 1.451462899 1.045374458
0.866144169 1.405172512 1.129284947
0.8354460024 1.355369925 1.210372811
0.802659656 1.30217962 1.288435374
0.7678670784 1.245734544 1.36327752
0.731155233 1.18617578 1.434712182
0.6926158803 1.123652194 1.50256081
0.6523453486 1.058320063 1.566653819
0.6104442933 0.9903426837 1.62683101
0.5670174451 0.9198899629 1.68294197
0.5221733486 0.8471379963 1.734846451
0.4760240908 0.7722686259 1.78241472
0.4286850205 0.6954689861 1.825527881
0.380274461 0.616931036 1.864078172
0.3309134134 0.5368510797 1.897969239
0.2807252546 0.4554292752 1.927116371
0.2298354289 0.3728691347 1.951446716
0.1783711342 0.2893770156 1.97089946
0.1264610047 0.2051616046 1.985425982
0.07423478843 0.1204333965 1.994989973
0.0218230239 0.03540416757 1.999567528
0.9100298603 1.780967617 1.224646799e-16
0.9088925599 1.778741871 0.09995833854
0.9054835015 1.772070197 0.1996668333
0.8998112059 1.760969271 0.2988762649
0.8918898509 1.745466838 0.3973386616
0.8817392358 1.725601647 0.4948079185
0.8693847317 1.701423351 0.5910404133
0.8548572186 1.672992382 0.6857956149
0.8381930077 1.640379804 0.7788366846
0.8194337507 1.60366713 0.8699310682
0.7986263362 1.562946124 0.9588510772
0.7758227717 1.518318567 1.045374458
0.7510800543 1.469896003 1.129284947
0.724460028 1.417799466 1.210372811
0.6960292288 1.362159168 1.288435374
0.6658587191 1.303114181 1.36327752
0.6340239094 1.240812088 1.434712182
0.60060437 1.175408611 1.50256081
0.5656836326 1.107067224 1.566653819
0.5293489806 1.035958746 1.62683101
0.4916912319 0.9622609102 1.68294197
0.4528045112 0.8861579235 1.734846451
0.412786015 0.8078400035 1.78241472
0.3717357688 0.7275029042 1.825527881
0.3297563767 0.6453474266 1.864078172
0.2869527654 0.5615789164 1.897969239
0.2434319216 0.4764067514 1.927116371
0.1993026249 0.3900438177 1.951446716
0.1546751753 0.3027059775 1.97089946
0.1096611184 0.21461153 1.985425982
0.06437296575 0.1259806655 1.994989973
0.01892391424 0.03703491492 1.999567528
0.7647938354 1.847996317 1.224646799e-16
0.7638380423 1.845686803 0.09995833854
0.7609730518 1.838764033 0.1996668333
0.7562060251 1.827245311 0.2988762649
0.749548877 1.811159427 0.3973386616
0.7410182472 1.790546587 0.4948079185
0.7306354576 1.765458314 0.5910404133
0.71842646 1.735957314 0.6857956149
0.7044217703 1.702117325 0.7788366846
0.688656393 1.664022929 0.8699310682
0.6711697334 1.621769343 0.9588510772
0.652005499 1.575462177 1.045374458
0.6312115904 1.525217177 1.129284947
0.6088399816 1.471159928 1.210372811
0.5849465899 1.413425546 1.288435374
0.5595911364 1.352158335 1.36327752
0.5328369964 1.287511433 1.434712182
0.5047510415 1.219646423 1.50256081
0.4754034718 1.148732932 1.566653819
0.444867641 1.074948207 1.62683101
0.4132198728 0.9984766716 1.68294197
0.3805392701 0.9195094642 1.734846451
0.3469075174 0.838243962 1.78241472
0.3124086766 0.7548832865 1.825527881
0.2771289768 0.6696357959 1.864078172
0.2411565989 0.5827145645 1.897969239
0.2045814551 0.4943368502 1.927116371
0.1674949642 0.4047235512 1.951446716
0.1299898231 0.3140986542 1.97089946
0.09215977516 0.222688674 1.985425982
0.05409937577 0.1307220882 1.994989973
0.01590375611 0.0384287652 1.999567528
0.61466574 1.903204148 1.224646799e-16
0.6138975678 1.900825638 0.09995833854
0.6115949715 1.893696054 0.1996668333
0.6077637063 1.881833217 0.2988762649
0.6024133483 1.865266776 0.3973386616
0.5955572706 1.84403814 0.4948079185
0.58721261 1.818200369 0.5910404133
0.5774002236 1.787818043 0.6857956149
0.5661446374 1.752967104 0.7788366846
0.5534739845 1.71373466 0.8699310682
0.5394199348 1.670218772 0.9588510772
0.5240176162 1.622528206 1.045374458
0.5073055265 1.570782166 1.129284947
0.4893254371 1.515109987 1.210372811
0.470122289 1.455650823 1.288435374
0.44974408 1.39255329 1.36327752
0.428241745 1.325975099 1.434712182
0.4056690287 1.256082661 1.50256081
0.3820823511 1.18305067 1.566653819
0.3575406666 1.107061669 1.62683101
0.3321053166 1.02830559 1.68294197
0.3058398763 0.9469792822 1.734846451
0.2788099956 0.8632860197 1.78241472
0.2510832351 0.7774349918 1.825527881
0.2227288973 0.6896407813 1.864078172
0.1938178532 0.600122828 1.897969239
0.1644223654 0.5091048802 1.927116371
0.1346159074 0.4168144353 1.951446716
0.1044729797 0.3234821714 1.97089946
0.0740689239 0.2293413705 1.985425982
0.04347973441 0.1346273356 1.994989973
0.01278186822 0.03957680253 1.999567528
0.4606058814 1.946237966 1.224646799e-16
0.460030244 1.943805676 0.09995833854
0.4583047705 1.936514883 0.1996668333
0.4554337738 1.924383812 0.2988762649
0.4514244299 1.907442783 0.3973386616
0.44628676 1.885734141 0.4948079185
0.4400336056 1.859312146 0.5910404133
0.4326805963 1.828242838 0.6857956149
0.4242461109 1.792603876 0.7788366846
0.4147512312 1.752484337 0.8699310682
0.4042196894 1.707984501 0.9588510772
0.3926778089 1.659215592 1.045374458
0.3801544383 1.606299509 1.129284947
0.3666808797 1.549368513 1.210372811
0.3522908098 1.488564903 1.288435374
0.3370201963 1.424040656 1.36327752
0.3209072079 1.355957049 1.434712182
0.3039921186 1.284484256 1.50256081
0.2863172073 1.209800921 1.566653819
0.2679266521 1.132093713 1.62683101
0.2488664198 1.051556861 1.68294197
0.2291841511 0.9683916644 1.734846451
0.2089290413 0.882805993 1.78241472
0.1881517177 0.7950137663 1.825527881
0.1669041129 0.7052344192 1.864078172
0.1452393346 0.6136923534 1.897969239
0.1232115337 0.5206163763 1.927116371
0.1008757681 0.4262391293 1.951446716
0.07828786566 0.3307965066 1.97089946
0.05550428429 0.2345270648 1.985425982
0.03258197112 0.1376714275 1.994989973
0.009578219988 0.04047168338 1.999567528
0.303599717 1.976822504 1.224646799e-16
0.3032202964 1.974351991 0.09995833854
0.302082983 1.966946625 0.1996668333
0.3001906194 1.954624918 0.2988762649
0.2975479357 1.937417666 0.3973386616
0.294161537 1.91536788 0.4948079185
0.2900398877 1.88853067 0.5910404133
0.2851932898 1.856973118 0.6857956149
0.2796338571 1.8207741 0.7788366846
0.2733754854 1.780024095 0.8699310682
0.2664338174 1.734824957 0.9588510772
0.2588262036 1.68528966 1.045374458
0.2505716591 1.631542017 1.129284947
0.2416908159 1.573716368 1.210372811
0.2322058716 1.511957248 1.288435374
0.2221405335 1.446419022 1.36327752
0.2115199598 1.377265502 1.434712182
0.2003706963 1.304669535 1.50256081
0.1887206104 1.228812574 1.566653819
0.1765988213 1.149884221 1.62683101
0.1640356272 1.068081757 1.68294197
0.1510624293 0.9836096448 1.734846451
0.1377116541 0.8966790205 1.78241472
0.1240166714 0.8075071657 1.825527881
0.1100117117 0.7163169635 1.864078172
0.09573177999 0.623336342 1.897969239
0.08121256867 0.5287977042 1.927116371
0.06649036822 0.4329373475 1.951446716
0.05160197648 0.335994873 1.97089946
0.03658460668 0.2382125863 1.985425982
0.02147579441 0.1398348921 1.994989973
0.006313303836 0.04110768357 1.999567528
0.1446515505 1.994762123 1.224646799e-16
0.1444707737 1.99226919 0.09995833854
0.1439288953 1.984796622 0.1996668333
0.1430272695 1.972363095 0.2988762649
0.1417681501 1.954999688 0.3973386616
0.1401546841 1.9327498 0.4948079185
0.1381909044 1.905669044 0.5910404133
0.1358817194 1.873825107 0.6857956149
0.1332329009 1.837297584 0.7788366846
0.1302510695 1.796177774 0.8699310682
0.1269436783 1.750568455 0.9588510772
0.123318994 1.700583626 1.045374458
0.1193860764 1.646348224 1.129284947
0.1151547558 1.587997808 1.210372811
0.1106356083 1.525678226 1.288435374
0.1058399294 1.459545242 1.36327752
0.1007797058 1.389764155 1.434712182
0.09546758536 1.316509381 1.50256081
0.08991684572 1.23996402 1.566653819
0.08414136079 1.160319395 1.62683101
0.07815556629 1.077774575 1.68294197
0.07197442356 0.99253588 1.734846451
0.06561338227 0.9048163623 1.78241472
0.05908834169 0.814835275 1.825527881
0.05241561102 0.7228175237 1.864078172
0.04561186863 0.6289931052 1.897969239
0.03869412032 0.5335965314 1.927116371
0.03167965686 0.4368662442 1.951446716
0.02458601076 0.3390440189 1.97089946
0.01743091243 0.2403743601 1.985425982
0.0102322459 0.1411038906 1.994989973
0.003008004084 0.04148073486 1.999567528
-0.01522189227 1.999942073 1.224646799e-16
-0.01520286887 1.997442666 0.09995833854
-0.01514584621 1.989950693 0.1996668333
-0.01505096683 1.977484879 0.2988762649
-0.01491846786 1.960076383 0.3973386616
-0.0147486805 1.937768717 0.4948079185
-0.01454202912 1.910617638 0.5910404133
-0.01429903023 1.87869101 0.6857956149
-0.01402029122 1.842068633 0.7788366846
-0.01370650879 1.800842044 0.8699310682
-0.01335846721 1.755114288 0.9588510772
-0.01297703643 1.70499966 1.045374458
-0.01256316982 1.65062342 1.129284947
-0.01211790182 1.592121482 1.210372811
-0.01164234538 1.529640069 1.288435374
-0.01113768914 1.463335353 1.36327752
-0.01060519447 1.39337306 1.434712182
-0.01004619235 1.319928061 1.50256081
-0.00946207997 1.243183928 1.566653819
-0.008854317322 1.163332484 1.62683101
-0.008224423492 1.080573313 1.68294197
-0.007573972887 0.9951132728 1.734846451
-0.006904591294 0.9071659672 1.78241472
-0.006217951818 0.8169512192 1.825527881
-0.005515770701 0.7246945185 1.864078172
-0.00479980303 0.630626459 1.897969239
-0.004071838351 0.5349821618 1.927116371
-0.003333696197 0.4380006877 1.951446716
-0.002587221538 0.3399244401 1.97089946
-0.001834280173 0.2409985583 1.985425982
-0.001076754063 0.1414703057 1.994989973
-0.0003165366286 0.04158845102 1.999567528
-0.1749979669 1.992329218 1.224646799e-16
-0.174779265 1.989839325 0.09995833854
-0.174123706 1.98237587 0.1996668333
-0.1730329283 1.969957508 0.2988762649
-0.1715096585 1.952615278 0.3973386616
-0.1695577039 1.930392527 0.4948079185
-0.1671819433 1.9033448 0.5910404133
-0.1643883149 1.871539702 0.6857956149
-0.1611838013 1.83505673 0.7788366846
-0.1575764122 1.793987071 0.8699310682
-0.1535751641 1.748433379 0.9588510772
-0.1491900581 1.698509514 1.045374458
-0.1444320546 1.64434026 1.129284947
-0.1393130462 1.586061012 1.210372811
-0.1338458278 1.523817437 1.288435374
-0.1280440644 1.457765112 1.36327752
-0.1219222576 1.388069133 1.434712182
-0.1154957087 1.314903705 1.50256081
-0.1087804806 1.238451702 1.566653819
-0.101793358 1.158904215 1.62683101
-0.09455180503 1.07646007 1.68294197
-0.08707392176 0.9913253366 1.734846451
-0.07937839903 0.9037128057 1.78241472
-0.07148447165 0.8138414635 1.825527881
-0.06341187032 0.7219359415 1.864078172
-0.05518077233 0.6282259556 1.897969239
-0.04681175115 0.532945732 1.927116371
-0.03832572497 0.4363334216 1.951446716
-0.02974390444 0.3386305048 1.97089946
-0.02108773964 0.2400811882 1.985425982
-0.01237886647 0.1409317937 1.994989973
-0.003639052587 0.04143014301 1.999567528
-0.3336546517 1.971972255 1.224646799e-16
-0.3332376703 1.969507803 0.09995833854
-0.3319877682 1.962120607 0.1996668333
-0.3299080696 1.949829132 0.2988762649
-0.3270037727 1.932664099 0.3973386616
-0.3232821366 1.910668413 0.4948079185
-0.3187524635 1.88389705 0.5910404133
-0.3134260753 1.852416927 0.6857956149
-0.3073162851 1.816306725 0.7788366846
-0.3004383643 1.775656703 0.8699310682
-0.292809504 1.730568463 0.9588510772
-0.2844487725 1.681154704 1.045374458
-0.2753770671 1.627538933 1.129284947
-0.2656170625 1.569855163 1.210372811
-0.2551931536 1.508247573 1.288435374
-0.2441313947 1.442870149 1.36327752
-0.2324594344 1.373886301 1.434712182
-0.2202064467 1.301468452 1.50256081
-0.2074030575 1.225797611 1.566653819
-0.1940812686 1.147062913 1.62683101
-0.1802743777 1.065461156 1.68294197
-0.1660168947 0.9811963012 1.734846451
-0.1513444559 0.8944789663 1.78241472
-0.1362937348 0.8055258998 1.825527881
-0.1209023504 0.7145594381 1.864078172
-0.105208773 0.6218069499 1.897969239
-0.0892522285 0.5275002682 1.927116371
-0.0730725999 0.4318751105 1.951446716
-0.05671032786 0.33517049 1.97089946
-0.04020630954 0.2376281178 1.985425982
-0.02360179638 0.1394917991 1.994989973
-0.006938291028 0.04100682347 1.999567528
-0.4901770854 1.939001399 1.224646799e-16
-0.4895644917 1.936578152 0.09995833854
-0.4877282417 1.929314468 0.1996668333
-0.4846729251 1.917228503 0.2988762649
-0.4804061786 1.900350465 0.3973386616
-0.4749386669 1.878722541 0.4948079185
-0.4682840558 1.852398789 0.5910404133
-0.4604589785 1.821445004 0.6857956149
-0.4514829935 1.785938556 0.7788366846
-0.4413785362 1.745968191 0.8699310682
-0.4301708624 1.701633815 0.9588510772
-0.4178879854 1.653046241 1.045374458
-0.4045606062 1.600326912 1.129284947
-0.3902220361 1.543607599 1.210372811
-0.3749081141 1.483030071 1.288435374
-0.3586571172 1.41874574 1.36327752
-0.3415096642 1.350915284 1.434712182
-0.3235086149 1.279708243 1.50256081
-0.3046989625 1.205302598 1.566653819
-0.2851277214 1.127884324 1.62683101
-0.2648438095 1.047646927 1.68294197
-0.243897926 0.9647909579 1.734846451
-0.2223424247 0.879523514 1.78241472
-0.2002311832 0.7920577193 1.825527881
-0.177619468 0.7026121928 1.864078172
-0.1545637966 0.6114105018 1.897969239
-0.1311217962 0.5186806029 1.927116371
-0.1073520596 0.4246542726 1.951446716
-0.08331399872 0.3295665279 1.97089946
-0.05906769627 0.2336550384 1.985425982
-0.03467375534 0.137159533 1.994989973
-0.01019314808 0.0403212002 1.999567528
-0.6435640585 1.893627551 1.224646799e-16
-0.642759771 1.89126101 0.09995833854
-0.6403489188 1.884167301 0.1996668333
-0.6363375278 1.872364155 0.2988762649
-0.6307356244 1.855881074 0.3973386616
-0.6235572104 1.834759256 0.4948079185
-0.6148202282 1.809051496 0.5910404133
-0.6045465155 1.77882205 0.6857956149
-0.5927617514 1.744146475 0.7788366846
-0.5794953917 1.705111441 0.8699310682
-0.5647805952 1.661814518 0.9588510772
-0.5486541414 1.614363923 1.045374458
-0.531156338 1.562878259 1.129284947
-0.5123309203 1.507486214 1.210372811
-0.4922249422 1.448326238 1.288435374
-0.470888658 1.385546201 1.36327752
-0.4483753975 1.31930302 1.434712182
-0.4247414319 1.249762268 1.50256081
-0.400045834 1.177097762 1.566653819
-0.3743503298 1.101491124 1.62683101
-0.3477191448 1.023131332 1.68294197
-0.320218843 0.942214245 1.734846451
-0.2919181608 0.8589421126 1.78241472
-0.2628878353 0.7735230724 1.825527881
-0.2332004271 0.6861706273 1.864078172
-0.2029301393 0.5971031129 1.897969239
-0.1721526318 0.5065431518 1.927116371
-0.1409448324 0.4147170966 1.951446716
-0.1093847443 0.3218544646 1.97089946
-0.07755125131 0.2281873641 1.985425982
-0.04552392059 0.133949914 1.994989973
-0.01338280378 0.03937765885 1.999567528
-0.7928344179 1.836140949 1.224646799e-16
-0.7918435813 1.833846251 0.09995833854
-0.7888735482 1.826967893 0.1996668333
-0.783931742 1.815523066 0.2988762649
-0.7770305147 1.799540377 0.3973386616
-0.7681871158 1.779059774 0.4948079185
-0.7574236492 1.754132448 0.5910404133
-0.744767018 1.724820705 0.6857956149
-0.730248857 1.691197808 0.7788366846
-0.7139054542 1.653347797 0.8699310682
-0.6957776596 1.611365278 0.9588510772
-0.6759107832 1.565355185 1.045374458
-0.6543544818 1.515432519 1.129284947
-0.631162635 1.461722062 1.210372811
-0.6063932103 1.40435806 1.288435374
-0.5801081184 1.343483894 1.36327752
-0.5523730583 1.279251719 1.434712182
-0.5232573533 1.21182208 1.50256081
-0.4928337773 1.141363517 1.566653819
-0.4611783736 1.06805214 1.62683101
-0.4283702641 0.9920711888 1.68294197
-0.3944914521 0.9136105762 1.734846451
-0.3596266169 0.832866413 1.78241472
-0.3238629024 0.7500405175 1.825527881
-0.2872896993 0.6653399113 1.864078172
-0.2499984216 0.5789763018 1.897969239
-0.2120822781 0.4911655531 1.927116371
-0.1736360393 0.4021271464 1.951446716
-0.1347558008 0.3120836311 1.97089946
-0.095538743 0.2212600693 1.985425982
-0.05608288811 0.1298834726 1.994989973
-0.0164868552 0.03818223486 1.999567528
-0.9370333426 1.766909311 1.224646799e-16
-0.9358622949 1.764701135 0.09995833854
-0.9323520789 1.758082125 0.1996668333
-0.9265114682 1.747068824 0.2988762649
-0.9183550614 1.731688762 0.3973386616
-0.9079032452 1.71198038 0.4948079185
-0.8951821437 1.687992938 0.5910404133
-0.8802235531 1.659786393 0.6857956149
-0.8630648619 1.627431247 0.7788366846
-0.8437489582 1.59100837 0.8699310682
-0.8223241214 1.5506088 0.9588510772
-0.7988439026 1.506333516 1.045374458
-0.77336699 1.458293183 1.129284947
-0.7459570627 1.406607876 1.210372811
-0.7166826313 1.351406782 1.288435374
-0.6856168665 1.292827875 1.36327752
-0.6528374167 1.231017572 1.434712182
-0.6184262132 1.166130366 1.50256081
-0.5824692664 1.098328441 1.566653819
-0.5450564497 1.027781267 1.62683101
-0.5062812757 0.9546651752 1.68294197
-0.4662406622 0.8791629176 1.734846451
-0.4250346899 0.8014632106 1.78241472
-0.3827663521 0.7217602629 1.825527881
-0.3395412979 0.6402532905 1.864078172
-0.2954675672 0.5571460182 1.897969239
-0.2506553215 0.4726461711 1.927116371
-0.2052165681 0.3869649547 1.951446716
-0.15926488 0.3003165274 1.97089946
-0.1129151128 0.2129174652 1.985425982
-0.06628311652 0.1249862203 1.994989973
-0.01948544701 0.03674257488 1.999567528
-1.075238452 1.686375484 1.224646799e-16
-1.073894684 1.684267953 0.09995833854
-1.069866738 1.677950631 0.1996668333
-1.063164683 1.667439305 0.2988762649
-1.05380527 1.652760249 0.3973386616
-1.041811892 1.633950154 0.4948079185
-1.027214527 1.611056034 0.5910404133
-1.010049661 1.584135113 0.6857956149
-0.9903601971 1.553254679 0.7788366846
-0.9681953481 1.518491918 0.8699310682
-0.9436105151 1.479933717 0.9588510772
-0.9166671471 1.437676453 1.045374458
-0.8874325887 1.391825747 1.129284947
-0.8559799109 1.342496201 1.210372811
-0.8223877292 1.289811114 1.288435374
-0.7867400065 1.23390217 1.36327752
-0.7491258434 1.174909114 1.434712182
-0.7096392559 1.112979397 1.50256081
-0.6683789398 1.048267811 1.566653819
-0.6254480245 0.9809361014 1.62683101
-0.5809538148 0.9111525624 1.68294197
-0.5350075231 0.8390916166 1.734846451
-0.4877239913 0.7649333787 1.78241472
-0.4392214035 0.6888632057 1.825527881
-0.3896209909 0.6110712335 1.864078172
-0.3390467287 0.5317519014 1.897969239
-0.2876250263 0.4511034665 1.927116371
-0.2354844111 0.3693275079 1.951446716
-0.1827552076 0.2866284228 1.97089946
-0.1295692112 0.203212916 1.985425982
-0.0760593592 0.1192894827 1.994989973
-0.02235939845 0.0350678878 1.999567528
-1.206565704 1.595054608 1.224646799e-16
-1.205057811 1.593061205 0.09995833854
-1.200537901 1.587085979 0.1996668333
-1.193017272 1.577143864 0.2988762649
-1.18251472 1.563259711 0.3973386616
-1.169056498 1.545468223 0.4948079185
-1.152676244 1.523813869 0.5910404133
-1.133414899 1.498350774 0.6857956149
-1.111320607 1.469142583 0.7788366846
-1.086448592 1.4362623 0.8699310682
-1.058861022 1.399792109 0.9588510772
-1.02862685 1.359823167 1.045374458
-0.9958216472 1.316455376 1.129284947
-0.9605274088 1.269797131 1.210372811
-0.9228323521 1.219965055 1.288435374
-0.8828306952 1.167083702 1.36327752
-0.8406224212 1.111285247 1.434712182
-0.796313029 1.052709158 1.50256081
-0.750013269 0.9915018442 1.566653819
-0.7018388663 0.9278162921 1.62683101
-0.6519102321 0.8618116826 1.68294197
-0.6003521617 0.7936529927 1.734846451
-0.5472935236 0.7235105836 1.78241472
-0.4928669367 0.6515597748 1.825527881
-0.4372084391 0.577980406 1.864078172
-0.3804571482 0.5029563871 1.897969239
-0.3227549125 0.4266752392 1.927116371
-0.2642459576 0.3493276254 1.951446716
-0.2050765254 0.2711068745 1.97089946
-0.1453945088 0.1922084975 1.985425982
-0.08534908153 0.1128296995 1.994989973
-0.02509032605 0.03316888591 1.999567528
-1.330175053 1.493530826 1.224646799e-16
-1.328512681 1.491664301 0.09995833854
-1.323529719 1.486069393 0.1996668333
-1.315238621 1.476760084 0.2988762649
-1.303660112 1.463759645 0.3973386616
-1.288823132 1.447100569 0.4948079185
-1.270764765 1.426824495 0.5910404133
-1.249530148 1.402982103 0.6857956149
-1.225172357 1.375632987 0.7788366846
-1.197752272 1.344845504 0.8699310682
-1.167338431 1.310696608 0.9588510772
-1.134006852 1.273271653 1.045374458
-1.097840846 1.232664182 1.129284947
-1.058930809 1.188975693 1.210372811
-1.017373997 1.142315384 1.288435374
-0.9732742802 1.092799881 1.36327752
-0.9267418843 1.040552947 1.434712182
-0.8778931163 0.9857051728 1.50256081
-0.8268500727 0.9283936492 1.566653819
-0.7737403346 0.8687616249 1.62683101
-0.7186966485 0.806958149 1.68294197
-0.6618565952 0.743137698 1.734846451
-0.603362245 0.6774597898 1.78241472
-0.5433598035 0.6100885849 1.825527881
-0.4819992454 0.5411924763 1.864078172
-0.4194339402 0.4709436683 1.897969239
-0.3558202686 0.3995177464 1.927116371
-0.2913172317 0.3270932382 1.951446716
-0.2260860534 0.2538511673 1.97089946
-0.1602897777 0.1799746006 1.985425982
-0.094092861 0.1056481912 1.994989973
-0.02766076118 0.03105771634 1.999567528
-1.445275822 1.382453543 1.224646799e-16
-1.443469603 1.380725836 0.09995833854
-1.438055463 1.375547034 0.1996668333
-1.429046932 1.36693008 0.2988762649
-1.416466529 1.354896513 0.3973386616
-1.400345696 1.33947641 0.4948079185
-1.380724729 1.320708314 0.5910404133
-1.357652669 1.298639135 0.6857956149
-1.331187185 1.273324035 0.7788366846
-1.301394426 1.244826287 0.8699310682
-1.268348858 1.213217122 0.9588510772
-1.232133079 1.178575546 1.045374458
-1.192837609 1.140988145 1.129284947
-1.150560666 1.100548868 1.210372811
-1.105407921 1.057358792 1.288435374
-1.057492231 1.011525869 1.36327752
-1.006933362 0.9631646589 1.434712182
-0.9538576835 0.9123960385 1.50256081
-0.8983978577 0.8593469031 1.566653819
-0.8406925051 0.804149848 1.62683101
-0.7808858591 0.7469428371 1.68294197
-0.7191274051 0.6878688581 1.734846451
-0.6555715071 0.6270755652 1.78241472
-0.5903770218 0.56471491 1.825527881
-0.5237069014 0.5009427616 1.864078172
-0.4557277864 0.4359185171 1.897969239
-0.3866095894 0.3698047034 1.927116371
-0.3165250697 0.3027665706 1.951446716
-0.2456494021 0.2349716789 1.97089946
-0.174159739 0.1665894805 1.985425982
-0.1022347673 0.09779089508 1.994989973
-0.03005426184 0.02874788338 1.999567528
-1.551131757 1.262533276 1.224646799e-16
-1.549193246 1.260955438 0.09995833854
-1.543382559 1.256225868 0.1996668333
-1.533714219 1.248356388 0.2988762649
-1.520212393 1.237366667 0.3973386616
-1.502910827 1.223284174 0.4948079185
-1.481852767 1.206144107 0.5910404133
-1.457090847 1.185989308 0.6857956149
-1.428686958 1.162870154 0.7788366846
-1.396712096 1.13684443 0.8699310682
-1.361246181 1.107977187 0.9588510772
-1.32237786 1.076340577 1.045374458
-1.280204282 1.042013677 1.129284947
-1.234830861 1.005082286 1.210372811
-1.186371006 0.9656387121 1.288435374
-1.134945841 0.9237815444 1.36327752
-1.080683902 0.879615404 1.434712182
-1.023720817 0.8332506831 1.50256081
-0.9641989623 0.7848032695 1.566653819
-0.9022671126 0.7343942564 1.62683101
-0.838080065 0.6821496401 1.68294197
-0.7717982538 0.628200005 1.734846451
-0.7035873488 0.572680197 1.78241472
-0.6336178419 0.5157289868 1.825527881
-0.5620646204 0.4574887228 1.864078172
-0.48910653 0.3981049751 1.897969239
-0.414925928 0.3377261724 1.927116371
-0.3397082273 0.2765032301 1.951446716
-0.263641433 0.2145891737 1.97089946
-0.1869156724 0.1521387561 1.985425982
-0.1097227199 0.08930807094 1.994989973
-0.03225551779 0.02625416206 1.999567528
-1.647065742 1.134537104 1.224646799e-16
-1.645007339 1.133119228 0.09995833854
-1.638837274 1.128869144 0.1996668333
-1.62857097 1.121797475 0.2988762649
-1.614234086 1.111921897 0.3973386616
-1.595862457 1.099267093 0.4948079185
-1.573502004 1.083864694 0.5910404133
-1.547208615 1.065753197 0.6857956149
-1.51704801 1.044977873 0.7788366846
-1.483095575 1.021590648 0.8699310682
-1.445436174 0.9956499782 0.9588510772
-1.404163935 0.9672207022 1.045374458
-1.359382017 0.9363738783 1.129284947
-1.311202353 0.9031866072 1.210372811
-1.259745365 0.8677418401 1.288435374
-1.20513967 0.8301281702 1.36327752
-1.147521754 0.7904396123 1.434712182
-1.08703563 0.7487753669 1.50256081
-1.023832484 0.7052395731 1.566653819
-0.9580702896 0.6599410477 1.62683101
-0.8899134186 0.6129930133 1.68294197
-0.8195322274 0.5645128156 1.734846451
-0.7471026325 0.5146216299 1.78241472
-0.6728056701 0.4634441581 1.825527881
-0.5968270439 0.4111083173 1.864078172
-0.5193566609 0.3577449198 1.897969239
-0.4405881568 0.3034873463 1.927116371
-0.3607184117 0.2484712125 1.951446716
-0.2799470584 0.1928340301 1.97089946
-0.1984759833 0.136714863 1.985425982
-0.1165088216 0.08025397992 1.994989973
-0.03425044849 0.02359250371 1.999567528
-1.732464128 0.9992837662 1.224646799e-16
-1.730298999 0.9980349217 0.09995833854
-1.723809023 0.9942915097 0.1996668333
-1.713010423 0.9880628867 0.2988762649
-1.697930189 0.9793646211 0.3973386616
-1.678606014 0.9682184539 0.4948079185
-1.655086198 0.9546522449 0.5910404133
-1.627429528 0.9386999024 0.6857956149
-1.595705132 0.920401299 0.7788366846
-1.559992304 0.8998021717 0.8699310682
-1.520380308 0.8769540076 0.9588510772
-1.476968153 0.8519139152 1.045374458
-1.429864346 0.8247444817 1.129284947
-1.379186624 0.7955136165 1.210372811
-1.325061653 0.7642943815 1.288435374
-1.267624718 0.7311648086 1.36327752
-1.207019382 0.6962077045 1.434712182
-1.143397125 0.6595104437 1.50256081
-1.076916972 0.6211647502 1.566653819
-1.007745086 0.5812664684 1.62683101
-0.9360543632 0.5399153231 1.68294197
-0.8620239916 0.4972146707 1.734846451
-0.7858390089 0.4532712406 1.78241472
-0.707689838 0.4081948684 1.825527881
-0.6277718111 0.3620982216 1.864078172
-0.5462846816 0.3150965179 1.897969239
-0.4634321249 0.2673072369 1.927116371
-0.3794212292 0.2188498271 1.951446716
-0.294461978 0.1698454067 1.97089946
-0.2087667252 0.1204164612 1.985425982
-0.1225496644 0.0706865373 1.994989973
-0.03602629322 0.02077993385 1.999567528
-1.806780655 0.8576384227 1.224646799e-16
-1.80452265 0.856566598 0.09995833854
-1.797754278 0.8533538029 0.1996668333
-1.786492456 0.8480080677 0.2988762649
-1.770765334 0.8405427539 0.3973386616
-1.75061222 0.8309765211 0.4948079185
-1.726083488 0.8193332796 0.5910404133
-1.697240446 0.8056421317 0.6857956149
-1.664155186 0.7899372981 0.7788366846
-1.626910406 0.7722580326 0.8699310682
-1.585599196 0.7526485241 0.9588510772
-1.540324815 0.7311577864 1.045374458
-1.491200423 0.7078395349 1.129284947
-1.438348807 0.6827520533 1.210372811
-1.381902068 0.6559580471 1.288435374
-1.322001294 0.6275244874 1.36327752
-1.258796205 0.5975224433 1.434712182
-1.192444781 0.5660269042 1.50256081
-1.123112866 0.5331165927 1.566653819
-1.050973753 0.4988737673 1.62683101
-0.9762077542 0.4633840174 1.68294197
-0.8990017439 0.4267360487 1.734846451
-0.8195486975 0.3890214621 1.78241472
-0.7380472061 0.3503345245 1.825527881
-0.654700981 0.310771933 1.864078172
-0.5697183445 0.2704325735 1.897969239
-0.4833117088 0.2294172734 1.927116371
-0.3956970456 0.1878285497 1.951446716
-0.3070933458 0.1457703523 1.97089946
-0.2177220726 0.103347805 1.985425982
-0.1278066076 0.06066694206 1.994989973
-0.0375716926 0.01783444332 1.999567528
-1.869539952 0.71050712 1.224646799e-16
-1.867203514 0.7096191711 0.09995833854
-1.860200039 0.7069575438 0.1996668333
-1.848547034 0.7025288909 0.2988762649
-1.832273623 0.6963442816 0.3973386616
-1.811420482 0.6884191743 0.4948079185
-1.786039734 0.6787733775 0.5910404133
-1.756194817 0.6674310008 0.6857956149
-1.721960327 0.6544203942 0.7788366846
-1.683421833 0.6397740774 0.8699310682
-1.640675661 0.6235286586 0.9588510772
-1.593828654 0.6057247429 1.045374458
-1.542997906 0.5864068308 1.129284947
-1.488310467 0.565623207 1.210372811
-1.429903026 0.5434258197 1.288435374
-1.367921573 0.5198701509 1.36327752
-1.302521028 0.4950150775 1.434712182
-1.233864859 0.4689227242 1.50256081
-1.16212467 0.4416583083 1.566653819
-1.087479775 0.4132899766 1.62683101
-1.010116747 0.3838886353 1.68294197
-0.930228953 0.3535277722 1.734846451
-0.8480160711 0.3222832739 1.78241472
-0.7636835907 0.2902332352 1.825527881
-0.6774422989 0.2574577645 1.864078172
-0.5895077543 0.2240387836 1.897969239
-0.5000997473 0.1900598223 1.927116371
-0.4094417513 0.1556058105 1.951446716
-0.3177603642 0.1207628652 1.97089946
-0.2252847417 0.08561807561 1.985425982
-0.1322460246 0.05025928543 1.994989973
-0.03887676137 0.01477487321 1.999567528
-1.920340573 0.5588309964 1.224646799e-16
-1.917940648 0.5581326032 0.09995833854
-1.910746869 0.5560391691 0.1996668333
-1.898777219 0.5525559267 0.2988762649
-1.882061614 0.5476915822 0.3973386616
-1.860641835 0.541458294 0.4948079185
-1.834571421 0.5338716421 0.5910404133
-1.803915534 0.5249505891 0.6857956149
-1.768750797 0.514717433 0.7788366846
-1.729165105 0.5031977514 0.8699310682
-1.6852574 0.4904203375 0.9588510772
-1.637137429 0.4764171281 1.045374458
-1.584925468 0.461223124 1.129284947
-1.528752018 0.4448763024 1.210372811
